# 3D point list with one line of data per point:
#   POINT3D_ID, X, Y, Z, R, G, B, ERROR, TRACK[] as (IMAGE_ID, POINT2D_IDX)
# Number of points: 417, mean track length: 3.4710207612456747
1868 5.7917122178455402 7.4796880622686448 11.594710697916579 239 232 222 1.0139221496112993 2 293 1 825 9 3183
1869 6.7293389091216564 2.2978448163180061 16.354017141346155 206 202 195 1.0608340813620836 2 378 6 2852 1 857
1870 5.2108701884730717 2.7245570346204819 13.905322810349379 168 62 72 1.6741278072978607 2 442 6 3019 1 981 9 3397
1871 5.0558728403118582 2.5258029178793966 13.821075658721906 36 3 6 0.93247837062465033 2 464 6 5630 1 1024
1872 4.3411234038586324 12.935853321533846 9.7802900434018731 174 162 146 0.74529220337945379 2 503 1 1034
1873 4.3411234038586324 12.935853321533846 9.7802900434018731 174 162 146 0.74529220337945379 2 504 1 1035
1874 4.9584413561957348 3.5719755849352137 13.597917113992205 9 3 7 0.68220599219399092 2 476 1 1036
1875 4.9761187368751258 3.5857460963849705 13.675746807536353 9 3 7 2.1257505754856196 2 477 5 5567 1 1037
1876 4.0956243587198653 6.0318461434378774 12.589196833237692 226 220 207 0.65301660388393967 2 601 1 1133 10 2995 9 3559
1878 3.4539123204429556 8.7045870239879957 11.525659712746965 99 86 67 0.67069398342854714 3 123 1 1226 9 3605
1879 3.5172818545661357 4.8531843394033451 12.344767653093154 218 218 217 0.92302077159941687 6 3446 1 1263 9 3699
1880 3.5426684916927944 4.5255549334764664 12.413917945696259 214 216 215 1.1848716981819936 2 682 6 3380 1 1265 10 3073 9 3704
1881 3.4592371280451597 3.8980226996490419 12.751598465892341 44 32 30 2.2634676711306518 6 3287 1 1294 9 3731
1882 3.3077404855003651 3.1338699687129172 13.682645166487301 11 7 12 0.14920068659407854 2 3909 6 3127 1 1338
1883 2.5958127197551821 8.8369066611725291 11.428713474889216 178 170 157 1.3943092090339728 4 3327 1 1386 9 3768
1884 2.5223345933785204 8.5271669513623696 11.556095711248208 211 203 190 1.2205127587044078 4 3268 1 1400 9 3798
1885 2.081824125574995 12.891148850901917 9.7206053563693455 125 109 93 1.9313900406955391 2 884 1 1421 7 3428
1886 2.0992058652746852 12.526405223850681 12.441044093963386 55 58 63 1.8927448511617095 2 980 1 1432 7 3463
1887 2.0992058652746852 12.526405223850681 12.441044093963386 55 58 63 1.8927448511617095 2 981 1 1433 7 3464
1888 1.0731306835520786 9.823809433855283 10.328672654767528 139 129 121 1.647387345830283 2 1117 1 1701 7 3248
1889 1.3095258016375575 6.8045614071244209 11.618610699501451 176 177 179 1.4254389537995724 3 413 1 1703 7 5974 10 3540
1890 1.0899962218188826 7.7395721832712372 11.239123386282975 149 147 147 0.38440023398761997 4 3199 1 1740 7 3255
1891 1.0165701688655153 8.1104820575343837 11.036697335713534 235 235 234 0.67311687067776427 2 1167 1 1754 7 5911
1892 -0.40415912490444228 17.014984105962252 8.9695113229288452 162 153 140 0.47453006041083767 2 1374 1 1817
1893 -0.084682946457896993 13.498947994590273 10.445536440600637 169 163 149 0.74458743531272831 2 1352 1 1826 7 3043
1894 -0.45206687745511692 16.8792112766881 9.0250856929745691 210 200 190 0.43268832198361318 2 1383 1 1827
1895 -0.61528259668674146 18.226595901198767 8.423585519001394 210 200 188 0.68286273676851228 2 1398 1 1829
1896 -0.16408133599856353 13.779487833445637 10.330856300870959 215 207 196 0.4691455903170742 2 1358 1 1831 7 3032
1897 -1.2775198657191549 17.799536469621838 8.578663857266875 86 72 59 2.049545653239178 3 872 1 1892 7 2830
1898 0.42565847524968181 3.3756848575839804 12.109164595480612 220 221 221 0.8927054281962693 1 1906 7 5759 10 6521
1899 -1.4419036767687687 18.15377058829494 8.426937245832006 202 188 177 0.29555974909006405 2 1501 1 1912
1900 -0.11320360398420595 9.1348311884298781 9.8102881929178238 159 160 159 0.70634555415111189 2 4299 1 1917 7 2994
1901 -1.4486112037966501 17.044884932600191 8.9085908883380949 106 97 86 0.88472017773054201 2 1516 1 1938 7 2814
1902 -1.1773298399312482 13.977120735513649 10.135174799319547 214 204 192 1.3245787302690657 2 1502 1 1958 7 2880 8 3388
1903 -1.3206741272556022 13.883692234301435 10.19074482542111 132 118 110 1.50999405820085 2 1535 1 1973 7 2852 8 3361 10 3751
1904 -1.6836035395057605 16.594126412545755 9.0535448538368186 214 203 188 0.37268409288592208 2 1565 1 1980 7 2776
1905 -1.7573975046275372 16.919998389884292 8.9797817570076024 95 89 81 0.061129721140312766 2 1575 1 1984
1906 -1.3980718869631401 13.611590624649647 10.306577872674156 220 210 198 1.1632440661854233 2 1557 1 1992 7 2839 8 3348 10 3768
1910 -2.064666259683857 3.4254826560520604 14.087772557152233 9 19 29 2.0219399560116273 2 1778 1 2247 8 3193 5 2912
1912 -2.7027266239115031 6.615761317476105 12.245022454057423 23 25 20 0.64698105758152147 2 1853 1 2339
1914 -3.2917417496017345 8.6671211476910219 11.865159266870888 152 139 132 1.4999724221908703 2 1908 1 2384 7 2500 8 3032
1915 -3.1330468054032825 5.92399261610836 12.979300625013247 119 116 112 1.2086700555673189 2 1919 1 2403 7 5383 8 5619 5 3393
1916 -3.3241199515946245 12.168238978925139 8.383328042955144 213 212 210 0.76373764501431041 2 1888 1 2414 8 2965
1917 -4.7551540088431556 6.2642150498103524 12.84291411130461 255 252 245 1.7481513892062044 2 2173 1 2672 7 5223
1918 -4.6922267612639619 5.4973416746280348 13.102137964840271 255 255 250 0.65574106603900029 2 2177 1 2675 7 2284
1919 -8.3340806075964 10.176143875370181 13.191297410242537 43 42 40 0.6765358433150559 2 2581 1 3009 7 1948
1920 -7.7262483745442303 3.4326932745848984 15.895534355101013 212 192 167 1.2811040042759707 2 2588 1 3025 8 2385 7 1956 5 5624
1921 -8.6012731559707607 11.540937667094688 12.527628605218146 52 51 49 1.7904887064326693 2 5117 3 1979 1 3029
1922 -8.7858457760586521 9.5493620294320394 13.288312666190947 218 177 161 0.72071701645020114 2 2664 3 2043 1 3101
1923 -8.8912622399861956 8.9884557437784576 13.62487732426743 171 116 96 1.7823769520315034 2 2685 1 3128 7 4920
1925 11.040671242816083 3.3346034567698934 14.490593343491842 107 93 82 1.6414926209766947 6 5635 10 1930 9 2383
1926 11.008879336182213 4.196632879014853 14.646240036148759 72 61 55 0.19014225927076223 6 5732 1 3291
1927 10.877665171202034 3.3088341399152319 14.497276229895677 87 70 60 0.94494405996732445 6 5632 10 1955 9 5745
1928 10.67783584717783 3.4199261988567864 14.447746618365933 89 71 58 0.92309606483175788 6 5652 10 1980 9 2436
1929 10.566033750934444 4.1551159542171128 14.212668900000015 228 224 216 0.37496423977752774 6 5739 10 2002 9 5774
1930 8.4790748589476337 4.0326551162968576 12.738964326152217 80 79 77 1.4979763527422987 6 7568 1 3462 10 5446 9 7972
1933 7.6129001234578952 7.2628648844350616 12.01942525124514 111 106 103 0.16277448270905012 4 2900 1 3551
1934 6.9745326946877757 9.30277541749739 11.178322125169119 182 178 175 1.0804590712140996 2 60 1 3609 10 2413 9 6064
1935 7.130424972973648 15.099537813640566 9.5029026825638869 224 211 197 0.77348992325361199 1 3612 10 2360 9 2792
1936 6.8682550809915135 9.4366495274828033 11.122984805443183 80 77 71 0.96954106710826804 2 90 1 3625 10 2436 9 2952 9 6081
1937 6.6530077226623492 9.5981724543043256 11.055071290931956 99 92 84 1.049232949517926 2 141 1 3652 10 2492 9 6119
1938 6.5648274394967396 9.2931827998273242 11.153643806174641 140 136 133 1.5197108405880293 2 3452 1 3665 10 2521 9 6137
1939 6.4867133508179879 9.5827788378732155 11.053487854011353 106 102 101 0.96810164934913812 2 3464 1 3672 10 2533 9 6145
1940 6.4402045324939676 7.0683885151354273 12.094120181643261 153 153 151 1.1375786066829945 2 3499 1 3691 10 2582 9 6195
1941 6.2715423823490672 9.4332022558660817 11.115677952810559 72 69 64 0.96791024204294362 2 223 1 3699 10 2571 9 6188
1942 6.3308199580087949 7.9276303614415049 11.726707891057609 97 96 93 1.2873535094914743 2 3507 1 3705 10 5733 9 6198
1943 6.2357594857730776 9.6827316316830352 10.998572259809844 55 51 50 0.99291207930440817 2 3519 1 3706 10 5721 9 8171
1944 6.2822310495217923 6.1410189650350047 12.452732794704728 100 98 99 0.94764245696698168 6 6040 1 3725 10 2624 9 3143
1945 5.6640738801498323 9.9599402524023031 10.576511121524019 238 232 219 0.81914314496674567 2 3563 1 3752 10 2641
1947 4.5273764434754318 9.9508489653665748 11.039131584133022 105 83 69 0.61019917820978842 2 3715 1 3918 10 5939
1948 4.4927019281494482 9.3623243694701994 11.297434546284823 83 66 56 1.2912049946159856 2 3723 1 3930 10 2856 9 3389
1949 4.4058428277847774 6.694493326903169 12.296977834118906 51 73 105 0.33753327953592149 2 3759 1 3970
1950 3.1662393616381888 12.865318804264486 9.3886358315554919 246 242 233 0.92862265619378592 2 3871 1 4056 9 6465
1952 5.3333963745078785 -7.7956173917111071 20.893813983267023 203 182 161 2.9404166405925385 2 844 1 4065
1953 3.5472914933420201 4.4690717360789183 12.472470409114161 4 5 8 2.3173025191520407 2 5914 4 2570 6 5896 1 4086 9 6588
1954 2.7491910610675521 15.375522175131119 8.5603589170274557 65 81 101 1.2242897060797335 2 3906 1 4099
1955 2.5269919987877074 14.14559442189284 9.0674004846082408 223 212 190 0.48326007778784502 2 3929 1 4122
1956 2.6116091466959257 9.3617278008119893 11.20932406381646 240 231 215 0.53123097210268388 3 263 1 4153 10 3180
1957 2.4732500506816422 8.5880443623883114 11.517571098874715 234 230 221 1.5803972559332431 2 3951 1 4188 10 6196 9 6670
1958 2.475570804485753 8.5832464016477505 11.515604409086777 234 230 221 1.2938943480098022 2 3952 1 4189 9 6671
1959 1.2078590603251091 6.6764973001251358 11.678985156326464 223 225 224 0.68227251787555576 2 4141 1 4406 7 5946 10 3559
1960 0.94734708526031564 7.496784188115722 11.306860053308531 226 226 224 0.58123224602414181 3 505 1 4429 7 5896
1961 0.05413529622070843 13.894351685736638 10.274567600503584 216 207 198 1.3674909324255826 2 4254 1 4445 7 5785 10 3587
1962 0.0013463749082606269 13.03109459863439 10.648603451619865 223 216 204 1.2691729998094756 3 696 1 4457 7 3062
1963 -0.23848915349899738 14.686969785902614 9.9053695711708194 155 143 130 0.70556100643869646 2 4292 1 4466 7 5733
1964 -0.52951401215983618 16.132492877229808 9.3240074933464214 180 178 166 0.66640421440982367 2 4318 1 4483 7 5691
1965 -0.52951401215983618 16.132492877229808 9.3240074933464214 180 178 166 0.66640421440982367 2 4319 1 4484 7 5692
1966 0.63268974029940239 3.7623138441119308 12.226082948271728 82 83 80 0.2413316722441278 1 4509 7 7687 10 6480
1967 0.62048182312481359 2.9972282908853116 12.357122124454248 121 170 120 1.2663650888105487 6 5764 1 4516 7 3074
1971 0.35170897354763647 3.320492298130564 11.92957395987232 225 225 223 1.2892477264432298 6 5810 1 4565 7 5740
1972 -1.7749829686596685 13.886540251044243 10.09728975059533 17 19 14 1.1836077619705905 2 7785 1 4629 7 5567
1973 -0.36377344388098343 3.13779893850701 12.174493724645941 52 51 50 2.0112373722771042 6 7565 1 4647 7 5638
1975 -3.1357093296052598 2.5233636582686345 15.395217986859322 82 128 141 0.72154666031681025 2 4683 3 4134 1 4882
1976 -3.239560052654173 6.3577925057563105 12.752115784413041 236 234 231 0.59334355872652811 2 4673 1 4919
1977 -3.5039306512940849 8.6643669319591226 11.866181596711304 226 218 207 0.029601142197721961 2 6535 1 4923
1978 -4.7542361730023117 6.5596425911856269 12.678319413104697 255 255 250 0.70648271172555999 2 2171 1 5075 7 2287
1979 -8.8269537314627318 11.543596189642809 12.788578667656953 0 0 0 0.39634233867370128 2 6869 3 6605
1980 -8.1947540499934366 4.0541699896526362 15.573015271556125 25 19 19 1.2349363234692987 2 6903 3 6621 1 5369
1981 -9.616726152584139 14.345010280377148 10.817146675160801 18 19 15 1.810599085644657 2 5197 1 5392
1982 -8.3776327419976724 0.94156890165274387 16.942726849114187 233 182 101 0.52136240036576609 2 5188 1 5397 8 5032
1983 -9.1579162900257849 12.606880428137998 11.438172785912112 17 22 0 1.380020291170881 2 5183 1 5399 7 4886
1984 11.252443182545356 4.120475880789602 14.714732592958498 227 220 214 0.028210970527757284 6 7497 1 5509
1986 10.232041537529822 4.5260481099139831 14.325113788402366 141 124 109 0.032067118345591256 6 7551 1 5574
1987 9.4938124489070201 6.1007623099440638 13.306194280078662 240 241 237 0.38060115780908643 6 8946 10 2130 9 7922
1988 8.4685649907656764 4.1596222319645779 12.697713548216068 91 90 86 1.7837078729689728 6 7579 1 5638 9 7973 10 5447
1989 8.5842734233178586 3.1296719104140469 13.944138846777998 229 214 193 2.1593985106684248 6 7464 1 5665 9 5946 10 5495
1990 7.7833073777474393 7.8319027808265469 11.796561847773065 208 194 177 1.2762023234714803 4 5682 1 5691 10 5535 9 8021
1992 7.909781458526651 5.8574723953796317 12.660350565943027 48 46 44 0.71175702569658528 4 5448 1 5694 10 5547
1995 7.4128541194451278 5.5585430656179478 12.834106510347873 132 131 129 0.65279002494591964 2 3377 1 5750 10 5629 9 8098
1996 7.4128541194451278 5.5585430656179478 12.834106510347873 132 131 129 0.65279002494591964 2 3378 1 5751 10 5630 9 8099
1997 7.2034119887249117 7.1761149456989939 12.08335708209464 68 64 63 1.0344790132676316 2 5608 1 5757 10 5638 9 8101 4 5626
1999 6.9922733877108652 13.255643248907894 10.04688138882843 33 24 27 1.6239282570722127 2 5659 1 5777 10 5615 9 8049
2000 6.966568589542284 13.449221331812785 9.9267809196028054 59 58 60 1.6504181869060368 2 5661 1 5779 10 5616
2001 6.8951835787943967 9.2435070968194921 11.212017249196551 85 81 78 0.93235061053739177 2 5635 1 5780 10 5649 9 8107
2002 6.8080043102896735 9.338573221748133 11.184462499120055 156 150 141 1.2022900489624428 2 5642 1 5789 10 7755 9 8114
2003 6.8168990835998162 7.2068485304175942 12.072507283011198 111 109 105 0.8153930937480226 2 5650 1 5808 10 5674 9 8133
2004 6.6180428951726338 9.3906720204775951 11.109382911910387 134 129 123 0.72812752773407419 2 5665 1 5811 10 5671 9 6133
2005 6.5180368705805032 8.6214597588037449 11.436913876452143 240 240 238 0.76041474915169316 2 5676 1 5823 10 5694 9 6161
2006 6.363674785283302 9.3710012042345312 11.121954120621853 160 157 149 1.4122462658965838 2 5686 1 5833 10 5705 9 8157
2007 6.3355311628395485 9.4897253665474715 11.078278917941741 181 177 171 0.95571663213764757 2 5690 1 5836 10 5707 9 8160
2009 3.8669762740903737 9.7573362076464409 9.9200188805736396 184 180 169 1.048426891173738 2 3760 1 6013 10 2875 9 6436
2011 5.2826659066744135 -6.6918904020321648 20.490891291372037 37 40 39 2.1147802911012112 2 3937 1 6071
2012 3.0399693380608981 16.049504954235505 7.8610592244187716 163 166 165 2.560171828518885 2 3886 1 6072
2013 3.4068134922296429 4.847943782135685 12.229693880022518 255 255 254 1.2940957804060835 6 7656 1 6100 9 8512 10 6103
2014 2.687662032647697 16.44342843794713 8.0702539341751578 230 223 212 2.9783913819372154 2 5992 1 6101
2015 2.4692224218359962 12.373244797659037 9.9360670155169082 234 227 217 0.26789986790345016 2 6010 3 5700 1 6140
2016 1.3628854612835355 4.8536941500644106 12.422662197310434 0 26 74 0.7604782978447272 2 7600 1 6302
2017 -0.31395505401862367 17.061035343801624 8.9449520287841704 169 162 151 0.28406698711836587 2 6249 1 6345
2018 -0.68469619951951999 16.161851954460953 9.3172156428407664 210 199 183 1.3665358087392738 2 6276 1 6363 7 7631
2019 -0.14463027581494922 8.0916207261329696 10.989192435760838 218 220 219 1.1683147237918208 3 5916 1 6395 10 8353
2020 -1.8709608446093169 15.81988724656536 9.1458556350352893 11 10 6 0.1540594062359944 2 6351 1 6446
2022 -0.74444319079367494 2.5465139181740275 13.312357972455246 240 229 213 0.51222149588845667 2 6345 1 6491 7 7583
2023 -0.8978478316211469 2.5718916683188464 13.120553142396039 199 196 189 1.1475085829654936 6 7492 1 6512 7 7571
2024 -2.8797710344949592 -0.30708753144232281 17.592168646986281 38 45 48 0.024254749851859866 2 6508 1 6570
2025 -4.6862288434360551 6.3313258831655901 12.775490649623729 73 64 56 1.1079072663474654 2 6642 1 6744 7 5228 8 7319
2026 -4.7757980635415551 7.2256785744403267 12.333824934005493 121 126 132 1.59966848164023 2 8028 1 6747 8 2771
2027 -4.7757980635415551 7.2256785744403267 12.333824934005493 121 126 132 1.59966848164023 2 8029 1 6748 8 2772
2029 -8.7148033369162174 14.409990486136936 11.233812056369633 206 157 145 1.5601154721262318 2 6825 1 6918 7 4973
2030 7.8245309326304868 3.3590749285184343 13.738768177432187 95 94 91 2.0573939114871052 5 7460 6 8811 1 7260 9 9598 10 7725
2031 7.2401108530458256 7.9070892282368206 11.769719692671613 154 153 150 1.8235161092240619 4 8907 1 7273 9 9605 10 9253 2 7225
2033 6.9816954120924146 7.3585690666670125 12.017414890944401 158 156 153 1.4313789538461235 2 5634 1 7302 9 9637
2034 6.7873137820295879 9.5295138137687605 11.113599191681228 166 158 154 0.52739300960953261 2 5643 1 7311 10 7756 9 8115
2035 6.7087040808876992 9.225099777545795 11.247188439054396 148 141 138 0.14564047726427426 2 5658 1 7321
2036 6.6760864333095817 8.3348569868785383 11.594319956791693 146 142 138 1.1348818798210005 2 7270 1 7327 9 9657
2037 6.5745342609744437 9.5095403044366318 11.083495386771078 165 161 152 0.85477231803816511 2 5669 1 7330 10 7780 9 8129
2038 6.7161874358997276 7.1112983062639259 12.094348839586894 91 90 88 0.64854116235085157 2 7272 1 7333 4 7532 10 7792 9 9663
2039 6.7161874358997276 7.1112983062639259 12.094348839586894 91 90 88 0.64854116235085157 2 7273 1 7334 4 7533 10 7793 9 9664
2042 6.2878108608920069 7.7528346031569946 11.794569495416486 100 99 98 0.89058878681133002 2 5705 1 7362 10 7821 9 8201
2043 6.387921359535806 6.2026531975554668 12.460124948070764 117 116 114 0.78077388008983206 2 5707 1 7367 10 5750 9 8210
2044 6.1767190311154936 8.5253027820704137 11.459492540500547 133 132 130 0.9050453068273433 2 5713 1 7368 10 7827 9 8203
2046 3.5976354128781178 9.9030694504563588 9.8057720383821536 123 120 113 1.0966029112595133 2 7425 1 7506 10 9440
2047 3.6063008682781503 9.9282745440269871 9.8299121577759543 123 120 113 1.3611695314704235 2 7426 1 7507 9 9843
2048 2.420291461521936 -1.5764972285962746 18.376074795368496 73 61 37 1.2160788917814591 2 6159 3 7470 1 7646
2049 1.0496620561839896 5.0143439556281271 12.357199030551788 0 36 91 0.47456552802242963 2 6177 3 7409 1 7716
2050 0.32471631712459575 9.5581592682686143 9.6640935191243358 170 170 169 1.0011177730053986 3 5847 1 7750 7 9073
2051 0.78566088259401956 2.1899231752665678 13.523719403172732 108 140 99 0.19817702649774827 2 7662 3 7458 1 7754
2052 0.57087143719216904 2.1548311551153287 13.511723704138552 138 164 129 0.15978510915141853 2 7684 3 7482 1 7765
2053 0.45210153966470884 3.4623039580095791 12.049563175259065 40 44 47 0.62906520988119452 2 7669 1 7774 7 9983 10 10577
2054 0.44440088512165898 3.6302435684447532 11.964058202631179 29 30 32 0.5241626032950979 2 7667 1 7775 7 9059 10 9681
2055 -1.5614395614354746 17.174709552787586 8.8421845283759328 216 208 195 0.51454459370887362 2 7764 1 7803 7 8960
2056 -0.20281957783548052 -0.58173739457588913 17.817772957798486 21 35 42 1.6287467167214515 3 6073 1 7806
2057 -1.3278525028837747 14.377518721249416 10.020607101341007 163 149 136 0.8114308211005099 2 7759 1 7812 7 8991
2058 -0.41935152395255576 3.5120561062657956 11.75474376300579 129 128 126 0.32903409758890695 6 9755 1 7859 7 10545
2059 -2.6347926208778278 12.076871398374543 8.6597167342521768 255 255 251 0.39857541851505773 2 7839 1 7940
2060 -2.5300941980189835 2.378862129072528 15.457621756251726 4 26 44 0.88148542769589966 3 7696 1 7941
2061 -5.5390730028288306 12.996619326043643 8.781800750907415 20 23 24 1.0028428853030196 1 8117 7 7272
2062 -5.989608455703566 1.5892662828869248 16.808792998710011 210 201 186 0.73364298057513488 6 7366 1 8128 7 8719
2063 -8.8399214398320343 14.823180636318256 11.153142747887706 202 156 143 1.6509633591154804 3 9001 1 8208 7 8613
2064 -7.8719661663871916 1.1655980152181105 16.947470779467501 186 170 143 1.1716176066896806 2 8186 1 8234 7 8609
2065 -9.2025061726348856 11.861717951049851 12.352895814488098 83 75 68 1.1611765272603594 3 9033 1 8258 7 8583 8 9582
2066 9.5710775049796233 6.4013004105810927 13.386523775081816 243 239 227 1.7494702098547474 6 10330 1 8362 9 10555
2068 6.2900530503111929 8.0656457168445304 11.687758190739604 100 97 95 0.90563945901288356 2 7292 1 8484 10 9308 4 8927 9 10673
2069 6.2956413205068182 8.075999521691152 11.704665270410841 100 97 95 0.85729244526431636 2 7293 1 8485 9 10674
2070 6.4404984382894863 4.8596491127047381 13.082247623916995 206 194 172 1.2406677085194318 2 8481 6 10297 1 8495 9 11330
2071 4.5781652654991518 6.51251519973163 12.377489310611404 50 66 90 0.83723521692814051 2 8574 1 8571
2073 3.1115950276022115 16.185593566545393 8.2484484382447842 237 228 213 3.192301394293227 2 8640 1 8616
2074 3.1115950276022115 16.185593566545393 8.2484484382447842 237 228 213 3.192301394293227 2 8641 1 8617
2076 1.3539372875037994 3.1736219209239707 12.394237454484159 97 99 98 1.2982993413011288 2 7607 6 9722 1 8734
2077 1.3539372875037994 3.1736219209239707 12.394237454484159 97 99 98 1.2982993413011288 2 7608 6 9723 1 8735
2078 -0.3583486322712216 13.459962583583627 10.387856584432251 221 214 199 1.3996580869122628 2 7697 1 8760 7 9971 10 9654
2079 0.44761739876818357 3.249680300626959 12.151143955580348 38 45 51 0.22403221090135417 1 8782 7 10573 10 11170
2080 -0.047937040544996902 2.5409719841391811 13.258629241450251 248 248 246 1.3626337136958893 2 7719 1 8797
2082 -4.3137282635536733 4.4983361012374994 13.682087947859669 204 201 192 1.1309091141349947 6 9766 1 8947 7 9819
2083 -4.2616625566858728 4.4705024713062969 13.586488612783212 204 201 192 1.5689325759986505 6 9765 1 8948 7 9818 8 10396
2085 10.007972333233166 4.0684779264041593 14.506728632639128 168 149 135 0.19387247670757185 6 10255 1 9122
2086 7.9330011376973353 7.6350445551737485 11.915646824213033 201 189 175 1.8798902151597359 4 9773 1 9152
2089 7.4256224176933419 3.2709379150717686 13.831047841040741 59 56 52 0.43721197448491911 2 8445 1 9193
2090 6.1675224861690126 5.7967550618439114 12.616213905872538 81 77 75 0.96389698826263182 6 10339 1 9221 9 11334
2091 4.9282656259097504 6.6541850183149798 12.304577527859285 37 53 68 0.2111541487223404 2 9356 1 9271
2092 4.2584272887425678 4.8097941224091292 12.523284854147558 215 217 216 1.2078412308653861 2 8594 1 9290
2093 3.0147676354241097 9.3051027659163488 10.04747292758805 255 255 253 1.0228582419761461 2 9409 1 9320 10 11065
2094 1.3920168911534312 6.7033661440505732 11.660308727033796 50 67 85 1.6589066957520273 2 9466 1 9389 7 10615 10 11123
2096 -8.7537541849555236 14.291726929587718 11.287869702823082 194 146 139 0.77481314797895262 2 9737 1 9623 7 10382
2097 -9.2175984276863776 15.221060733958915 10.672980683309572 239 235 234 1.2298178830101487 2 9108 1 9632
2098 4.586726073204102 9.6928213093509186 11.099506427774934 210 202 183 0.81860172429538958 2 9369 1 9770
2099 4.8838482092675557 2.8544769205468743 13.96285736668567 6 11 16 0.067947046449257587 2 9910 1 9784
2100 3.4389064006219665 3.4139068927245053 13.155754800941915 238 239 234 0.48673586334097985 6 10265 1 9812
2101 0.43631212238736855 8.3331191283526618 10.894327855623295 75 140 198 0.66776709192578787 2 9496 1 9851
2102 0.76224555807044259 3.0105507531323132 12.567202749738071 255 255 255 2.0396771476941788 6 10601 7 10980
2103 -1.3247762112070729 15.854585335055086 9.3973354612373079 192 182 165 1.1337771264560739 2 10016 1 9867 7 10947
2105 -3.5677558591687086 9.2049706285861834 11.625051801687126 240 236 234 0.0023806075234807074 2 10061 1 9917
2106 -3.7329019213471182 11.438738066694517 9.9355336607005711 255 255 255 1.3112824977815516 2 10062 1 9923 8 10853
2107 -3.7329019213471182 11.438738066694517 9.9355336607005711 255 255 255 1.3112824977815516 2 10063 1 9924 8 10854
2108 3.9048925904738705 2.7585533018074928 13.924356776793918 10 10 13 2.5759599392599548 3 133 2 702 1 1239 5 2695 4 2278
2109 6.5281854400543962 6.1439590217181648 12.500250146428581 66 65 64 0.95071659304205747 6 9002 4 7450 2 5687 1 7351 10 7814 9 8193
2110 6.5281854400543962 6.1439590217181648 12.500250146428581 66 65 64 0.95071659304205747 6 9001 4 7449 2 5688 1 7352 10 7815 9 8194
2111 -0.61408473819071274 4.40011097657582 12.489637936308364 22 32 44 1.0655360425267306 2 9541 6 10303 1 9463 3 9454 7 10546
2112 0.44139618581493739 3.1163954685513677 12.164831745817123 141 141 141 0.74570270388072757 2 4273 3 3663 1 4546 7 5756 10 6523
2113 0.44237858747873698 3.1163698784788121 12.162259484325014 141 141 141 0.68781587434910807 2 4272 3 3662 1 4545 7 5755
2114 4.1607707643442353 3.0569591523990707 13.814479366742539 9 13 17 1.6211226813452413 3 3315 2 3825 1 6053 6 5717 4 2345
2115 -0.083604350934104316 1.9602471815584617 13.589136653283898 26 28 27 0.90162267738261859 3 9442 2 9529 1 9452 6 9666
2116 0.14596470243920059 1.9711313711901821 13.525125103238336 12 25 18 2.2732501408887589 6 9667 5 10237 4 9568 2 10001 3 9973
2117 -0.58770845769246627 2.5726133231600881 13.324357778683973 114 107 96 1.2558307416163546 2 4425 3 3838 4 2323 1 4655 7 5617 10 6647
2118 0.3454356494986256 3.1090211615358085 12.155016466078282 118 119 119 0.90556144225795721 2 4295 3 3679 1 4562 7 5738 10 8370
2121 8.4595771946921285 5.7689846884067864 12.835483841869046 113 109 106 0.95146536174737195 6 5950 1 3478 9 2703
2122 8.0390983039739705 5.8384523915318125 12.707546554601485 123 122 117 0.89565501735115971 6 5973 1 3519 10 2294 9 5982
2123 5.3444856974256485 -7.6044003561817135 20.859445986992384 203 185 164 2.9836997374790721 2 840 1 4059
2124 7.66221926020315 6.4664278317305026 12.362863216457471 87 83 82 2.1612662961928004 4 5520 1 5707
2126 7.0918866969135026 6.1483950803493244 12.567358119041572 108 107 104 1.3520052943158165 2 5633 6 7730 1 5784 9 6117
2127 6.651154401990067 9.0710491706503351 11.34138638805338 179 175 170 0.06121569910426039 2 8465 1 8468
2129 -8.577017249790206 11.077540544694688 12.570126584923162 59 54 57 3.1510746236434919 2 9750 1 9048
2130 -0.51372653028933435 1.9603640822027033 13.520309904270473 55 57 58 2.1295255216834286 2 6324 3 5998 1 6472 6 7424 4 5110 7 7593 5 7430
2132 -16.377347086931898 3.8775676117191167 12.702316377190481 247 244 237 0.45313566305011227 4 5420 7 637 8 4114
2133 -16.195242550760486 9.3835497626989515 12.030445405678238 37 36 36 1.0053274703460746 4 5958 7 855
2134 -14.96855506348331 4.3919045523000433 13.519021028893357 83 74 60 0.24843137167374607 4 5471 7 865 8 4297
2135 -14.863413144384424 5.9288501768273472 12.817911759215507 238 234 223 1.4022231360773141 4 2950 7 892 8 4320
2138 -13.96145711257237 4.5216135935284614 13.506293107924511 209 206 197 1.229724617324871 3 5504 4 5486 5 7650 7 990 8 1371
2140 -11.175086773293106 8.8548958380484848 11.074148566130718 47 36 30 0.58829166550256384 4 6023 7 1320 8 1752
2141 -10.777142801491536 8.2669674751445505 11.393669794232324 221 219 207 1.5877914888529723 4 7751 7 1377 8 4738
2142 -9.5974700970561049 1.8774537492579033 14.012352340902392 100 89 79 0.54243873527640396 5 5499 7 1470 8 4813
2143 -9.8091712211876008 5.9451038217926779 12.356841770510943 224 221 214 0.15556625454074766 2 5476 7 1490 8 4828
2144 -9.5539070002246564 4.4188695769534752 13.023011446317216 177 171 157 0.69907141539395679 2 5457 7 1523 8 4847 4 7421
2145 -9.1536534412427617 2.9742472859367166 13.630968863668693 233 229 220 0.91050014210124119 2 5400 7 1564 8 4888
2146 -5.242251868442839 11.511727064289627 10.479221553454421 100 106 99 1.0043313004792773 1 2646 2 2172 7 2259
2147 -4.7598160336216191 7.0723870970693241 12.490482399137854 142 130 115 1.1120341598880152 1 2653 2 4833 7 2292 8 5429
2149 -4.4661431084491818 4.4730098283149582 13.627341418781004 235 232 224 1.5376114805108578 3 1439 7 2308 8 2789 5 3090
2150 -3.287752144763092 8.6622057196967255 11.858013029000796 126 117 110 1.7072261680846432 1 2383 7 2501 8 3033
2151 -2.988788187916005 6.7929780134002584 12.134492796454866 181 188 180 1.9407949531267896 3 4067 7 2508 8 7473
2152 -2.6064631485372636 14.371134490443215 7.6381178887869359 212 205 197 1.3875276139670434 3 6109 7 2534
2153 -2.4924154479835021 8.5833881970177703 11.965890734742135 193 189 180 1.334564240286283 1 2251 7 2613 8 5712 4 5926
2155 -1.557070189841619 16.496085148456697 9.0865752880516517 210 202 191 0.25124769121725721 2 1545 7 2795
2156 -1.557070189841619 16.496085148456697 9.0865752880516517 210 202 191 0.25124769121725721 2 1544 7 2796
2157 -1.2015119586969853 8.7526100427206579 10.703408633072 215 214 209 1.6133599382996644 1 2093 7 2804 10 3902 2 1585
2158 -0.86097303776577971 5.2158956044561711 12.197023149472288 18 99 155 1.9943091328025719 5 3277 6 3542 7 2841
2159 -0.86097303776577971 5.2158956044561711 12.197023149472288 18 99 155 1.9943091328025719 5 3278 6 3543 7 2842
2160 -1.370862253906924 16.244700138733279 9.5076666690440117 194 186 175 0.18058287452101829 1 1937 7 2844
2161 -1.370862253906924 16.244700138733279 9.5076666690440117 194 186 175 0.18058287452101829 1 1936 7 2845
2162 -0.5736476751764007 2.7498949396926649 13.096521990429514 185 187 184 1.4452314451666164 6 3121 7 2856
2163 -1.218281635410172 15.710148028874471 9.4250724262228438 192 179 167 0.027287168307132709 2 1483 7 2864
2164 -0.34974794175711393 3.5126993864705072 11.799230714413818 118 114 115 1.2348193720166443 6 3297 7 2894 10 3893
2165 -0.36091269183987063 7.393191569715583 11.332496957308209 181 185 186 0.50212061868823854 4 3172 7 2967 10 3783
2166 0.8025159333680193 6.1020573405700365 11.917819107805721 232 234 232 1.1063742262119707 5 3433 7 3162 10 3643
2167 0.94892405903074362 9.0807125536409004 10.674963772447963 143 148 152 0.63780635069471447 4 3501 7 3220
2168 0.95525008780893916 9.6189603675521731 10.427327007830135 240 240 236 0.32760367211497399 4 3652 7 3221
2169 1.0677504336993746 6.2642916815217156 11.860855319685449 186 189 190 1.298592390754689 5 3466 7 3235 10 3599
2171 -15.871901315923241 2.4926291395611524 13.914447623361003 244 241 234 0.94874271970619828 4 5320 7 4050 8 4182
2172 -15.853284202956516 1.8079026399386455 14.217129816946539 228 225 219 1.1984805711259925 4 5252 7 4051 8 4183
2173 -15.805639689345018 1.3610499287198292 14.361311644388536 212 210 202 2.0312285278944735 4 5201 7 4052 5 7428 8 4180
2174 -15.045219191654505 8.5657172927997802 12.104547430718508 224 221 212 0.78923565057820655 4 7720 7 4222
2175 -14.480358096346874 6.4798185400332295 12.760307863449432 80 72 59 0.58590913102436282 4 5706 7 4229 8 4372
2176 -14.024774619053241 4.7495100158830699 13.477071045518494 203 200 193 0.77397821981706216 5 7669 7 4245
2177 -14.11305264851732 6.5229936821260166 12.761227946440457 183 181 169 1.1460856723645323 4 7585 7 4259 8 6613
2178 -13.751894984573264 3.5592389226079431 13.895419039915604 217 213 202 0.78841621212140645 5 7585 7 4260 8 4405
2179 -14.209370504743168 7.7597674928032498 12.242918299580182 227 227 215 1.2845822403661675 4 8994 7 4265 8 6616
2180 -13.947878761917361 6.5977162729823364 12.669469790845003 101 87 76 0.42486026030729435 4 8918 7 4279 8 6624
2181 -13.672388672149337 8.3307926373270007 12.033274494125481 35 27 18 0.94708950215555487 4 7715 7 4337 8 4477
2182 -13.486285470307731 8.3295332007468783 12.015119749795454 30 17 8 0.98186607445215746 4 7719 7 4356 8 4502
2183 -11.439551801552884 9.2833035217253901 10.891610826584406 79 72 62 1.5399919978904655 4 9133 7 4487 8 6785 3 8280
2184 -11.002902086670293 7.8266508884503683 11.482728580194967 190 187 176 0.10817428993067946 7 4517 8 6813
2185 -10.699609621971362 7.6738220523363605 11.586812958969057 171 166 152 0.3006083979015533 4 7697 7 4544 8 4739
2186 -9.701850556557698 4.6152765500044346 12.906211056805274 226 223 216 0.68203758807679105 2 7100 7 4623 8 6899
2187 -9.0416682147593974 12.23358834312557 11.993740284455409 216 210 209 1.357525556631072 2 5158 7 4919 8 2239
2188 -7.5519865553396741 -2.2047683008083343 18.140298957409392 3 4 2 0.70169134765439889 6 5020 7 4957 8 5078
2189 -7.5096729411163468 -0.26033742765638257 17.535613113533447 171 164 156 0.44008599822655142 6 5284 7 4982 8 7091
2190 -7.5096729411163468 -0.26033742765638257 17.535613113533447 171 164 156 0.44008599822655142 6 5285 7 4983 8 7092
2191 -7.3332352788980977 1.0481703673865832 16.94495709788422 156 147 140 0.94748008696165154 6 5464 7 5008 8 5144 1 5281
2192 -6.3421366675450175 1.3625640096489162 16.76371276617451 129 120 111 0.35696581548777084 7 5099 8 5242
2193 -4.5579153905688523 3.3144023169578265 13.985053303623749 85 89 92 1.8144853089385131 6 7535 7 5210 8 7312 5 7567
2194 -4.5532459893195893 2.3991980963430022 15.414686617857193 72 113 125 0.095527384036846033 7 5247 8 7317
2195 -3.186509534167886 12.465011774849476 12.413684757584692 44 52 63 0.6863975670452771 2 1818 7 5466
2196 -2.4418426630273218 9.2900254407196705 11.758458899916702 84 91 100 0.85921696508135392 2 6437 7 5480 8 8915 10 9808
2197 -2.1693769330706685 17.30046651026186 8.8278911016214501 67 69 9 0.30931166981946145 1 4619 7 5528
2198 -1.5004374439685269 14.030649922014643 10.126251303034939 156 148 133 1.1909201149524813 1 4601 7 5591 8 5802
2199 -1.5004374439685269 14.030649922014643 10.126251303034939 156 148 133 1.1909201149524813 1 4600 7 5592 8 5801
2200 -0.094667583543201206 9.4555743550247904 9.6873195512697095 71 73 72 0.66987248450440251 1 4542 2 4284 7 5722
2201 0.42565847524968109 3.3756848575839813 12.109164595480618 214 216 213 0.89270542819633969 1 1905 7 5758 10 6520
2202 0.48799425345319974 3.716009144725581 11.728926352413005 22 24 26 1.2685738468800223 1 4535 6 5865 7 5776
2203 1.0074528437536259 9.7254656727244537 10.460091525485838 118 119 119 0.59596191049040115 1 4395 7 5912 9 4068
2204 1.1455615861728587 9.802678322789145 10.373877785963064 221 220 216 0.79803146792618007 4 6093 9 6785 7 5936
2210 -15.858208659816427 2.8470991253224485 13.650103843251609 243 245 239 0.95179461101333063 4 7330 7 6523 8 4177
2211 -16.151329533455304 6.1541430536546065 12.921380408051215 70 67 66 1.475852106691254 4 8878 7 6568 8 6475
2212 -14.830481615838746 4.8092286258691264 13.366521246471734 180 178 170 0.87241099451147408 4 9702 7 6627 8 8140
2213 -15.719196794449541 8.917604748810966 12.163550416144293 99 89 75 0.83384257999224554 4 9039 7 6633
2214 -14.689117019986533 4.9433628507287262 13.39646394013551 16 16 16 1.2311350786613868 4 9713 7 6639 8 8153
2215 -15.29231979177397 8.5936193201368187 12.152405554451063 228 226 214 0.91512033539203608 4 9033 7 6644
2216 -14.501616007170499 5.607917392803385 13.056831437358168 239 236 227 0.38300573555440187 4 9758 7 6646 8 8167
2217 -13.884082027410942 9.5133780435270552 11.71924500788862 153 145 135 0.45579775217119611 4 9925 7 6728
2218 -11.171848930713008 6.5160686801753407 12.054682202732693 205 200 189 1.042121468430951 3 8287 7 6820 8 8320
2219 -10.342662635927653 4.223042815507303 12.939295740488387 11 11 11 1.3110045844879832 5 8928 7 6866 8 6838
2220 -10.175737509292167 5.512965065018669 12.51319619365491 35 36 38 1.5742205863015881 5 9027 7 6899 8 8391
2221 -9.7215377404828214 1.9719916724694282 14.040376426172353 234 229 223 1.2378185982321335 4 7231 5 8763 7 6925 8 6886
2222 -9.8504599551731431 4.710991312824528 12.875981124783939 126 123 116 1.0200775252912391 2 8374 7 6932 8 8410
2223 -9.9048358352179093 5.839014005930931 12.395619723726137 118 118 110 0.57041117925018547 2 8370 7 6937 8 8413
2224 -9.4590464351181431 6.3500675758570475 12.226501221730812 205 202 187 0.54340280932482155 2 8326 3 9092 7 6978 8 8453
2225 -9.1038215493673302 12.477546156523026 11.95200804381585 239 235 234 1.3844823409605425 1 8253 7 7130 8 7038
2226 -7.6265762845682659 -0.61125455689369157 17.70193116131367 113 119 105 0.41760325089379119 6 7137 7 7164 8 7077
2227 -7.6265762845682659 -0.61125455689369157 17.70193116131367 113 119 105 0.41760325089379119 6 7138 7 7165 8 7078
2228 -7.689373652895739 -1.1568496921071976 18.069106025099792 182 173 160 0.27566643416595465 6 5205 7 7166
2229 -7.0356091288572147 -5.8863017826360355 19.837408684963773 143 127 77 1.9014559094273438 6 4617 7 7174 8 8578
2230 -4.0846135598394877 12.170243711937754 8.9842771352552013 12 15 20 1.8585481051097037 2 7954 7 7381 8 8795
2231 -3.2389646827729384 4.6709141384115949 13.496796727913729 219 214 202 0.78732971747429181 6 7627 7 7451 8 8850
2233 -1.7963083336962373 13.765153834249094 10.267496177933074 2 7 3 0.32514040960775076 1 6460 7 7568 10 8399
2235 -15.72678185278189 1.2779598124867804 14.122012239174497 3 81 142 1.6093730773572819 4 9586 7 8152 8 9274
2236 -16.033569088226823 3.8690504005986766 13.21908415065343 217 216 211 2.2838327680071031 4 9665 7 8159 8 9278
2237 -15.443388484780312 7.976840913624339 12.266698241048285 112 100 87 0.34255794758356961 4 9864 7 8223
2238 -15.443388484780312 7.976840913624339 12.266698241048285 112 100 87 0.34255794758356961 4 9863 7 8224
2239 -14.086579805431878 8.9751103931744378 11.543194782305244 253 253 245 0.85376936570520412 7 8254 8 9364
2240 -13.902183663448803 8.2996075130100255 12.003411417036316 231 228 219 1.5996920045451182 4 10413 7 8270 8 8217
2241 -12.534306548692804 0.68701630621414234 14.962480606814825 141 131 121 0.96224605854603273 5 9601 7 8302 8 8243
2242 -10.065743461412861 5.9377010758524449 12.342050397935958 226 226 220 0.90808673903089066 5 10368 7 8428 8 9477
2243 -9.7731452641789911 3.600467718167029 13.326841774821151 141 139 132 1.1257927544879178 2 9230 7 8434 8 9491
2244 -9.8349132910261492 8.1078520722601297 11.431681665214578 219 215 204 0.93458193695622638 4 9895 7 8473 8 8440
2245 -4.1221407938665724 5.1965334417777234 13.317797056468908 48 70 92 2.4544762867359373 6 9803 7 8798 8 9773
2247 -1.2658973850630908 16.129869297064943 9.5387199250183112 112 104 91 0.21875733125934199 1 7786 7 8997
2248 0.52308926418434032 3.016282992521472 12.024873275068124 8 12 16 2.0900832438009469 1 6388 6 8851 7 9058
2253 -16.293640867521244 6.8171005884272029 12.513604463835884 212 208 202 1.4619600072712078 4 10379 7 9378 8 9296
2254 -16.030979699336118 7.9032682460979373 12.389699160803289 254 253 249 0.28106495854664748 4 10824 7 9401
2255 -14.896956517073784 6.2645302366801721 12.863139000924834 44 48 53 1.9145051188235975 4 10364 7 9419 8 9338
2257 -15.224828235614281 9.0221019607389259 11.973887058954837 246 245 240 1.3415928485832616 4 10426 7 9424
2258 -14.472676486751775 5.4005654072135627 13.145848206875618 236 233 224 0.26617132389664261 4 10765 7 9425 8 10103
2259 -15.056015241737839 8.749512406869524 12.033616626763353 103 89 76 0.28829151290795157 4 10835 7 9429
2260 -15.056015241737839 8.749512406869524 12.033616626763353 103 89 76 0.28829151290795157 4 10834 7 9430
2261 -14.066699611683561 3.5258315315133588 13.961963279075182 54 61 71 0.76958498593919 5 10637 7 9435 8 10113
2262 -14.039081072481977 6.7006135467983521 12.640715066299116 109 99 88 0.82023804945103074 4 10381 7 9440 8 9361
2263 -9.6991848529759181 8.520060096869031 11.236971900425512 133 125 114 0.77131180782499387 4 10851 7 9580 8 10219
2264 -7.6414490470790559 -0.099043633636685682 17.509094794401605 125 119 113 0.64947063863207144 6 9544 7 9691 8 9608
2265 -3.8306577342474291 5.7474297766642719 12.880507699627087 42 57 69 1.0679935702075987 7 9831 8 9782
2266 -0.086827559818711986 3.0224843757102238 13.078689187164745 252 252 250 0.28589210513829089 7 9956 2 8800
2268 1.016506827461346 9.8918200414632071 10.312668398784247 152 144 136 2.6906986919218974 2 7601 7 10018 10 9598
2269 1.3010485872587849 8.7849691513430361 10.786560300762734 48 53 59 1.3225258311024208 2 8718 7 10038 10 10506
2271 -16.029951112519527 3.4635514550515651 13.033092434981342 230 227 223 0.86463341735279231 4 10300 7 10179 8 10069
2272 -16.029951112519527 3.4635514550515651 13.033092434981342 230 227 223 0.86463341735279231 4 10301 7 10180 8 10070
2273 -16.640025388622409 7.4759561660668075 12.519607617586086 231 226 220 1.2691793623081455 4 10813 7 10196
2274 -13.248755308209487 3.4213129531853435 13.991666231120757 30 21 13 1.3737618392215074 5 10635 7 10245 8 10677
2275 -11.318156808662881 9.1352586728487797 10.878091714287178 93 84 77 1.6994876912542736 3 10222 7 10282 8 10713
2276 -10.873978448767492 5.0799719003747876 12.651650473456359 196 189 174 0.73429491672651137 4 10755 7 10283 8 10715
2277 -10.873978448767492 5.0799719003747876 12.651650473456359 196 189 174 0.73429491672651137 4 10754 7 10284 8 10716
2278 -9.6633327397316258 8.2827744172965279 11.275815035784126 134 129 119 1.6566070629362493 2 10201 7 10313 8 10742
2279 -6.7009866532559696 -5.8552611153390455 19.832162921939595 110 98 48 1.3719996573604185 6 9269 7 10391 8 10290
2280 -4.5362877450709105 12.052861665620883 9.1083575779902866 125 129 130 2.1747622684120822 1 9548 2 9658 7 10443
2281 -3.4638279735166893 5.2845825016913324 13.210457688616829 155 159 158 2.370392288149449 6 10637 8 10856
2282 -3.0796407965704375 5.5369776538744233 13.137781218867429 6 15 24 2.0532416966202147 6 10334 7 10494 8 10436
2283 -3.0515547100486886 11.370198569221936 10.09251855713201 54 68 66 1.8280859744151272 1 9498 2 9603 7 10501
2284 -2.3292133766418779 5.3715482117067443 13.108929380144438 43 63 87 1.4859288484370219 6 10329 7 10517
2285 -0.45928169911495986 15.198929389795381 9.7335503803990004 203 195 182 0.96481112414076176 1 9418 2 8787 7 10563
2288 -8.6979928306047469 0.34631798387967805 17.280713675548334 133 126 119 0.54247298562570423 6 10537 7 10821
2289 1.5161435674569059 3.301921510996991 12.626013522733226 252 252 254 1.6538805018080445 1 9399 7 11003
2290 -0.85908366337056086 1.9776622959064134 13.432698386179712 64 65 65 1.9481611440376545 6 2961 7 2780 2 1622 1 2131
2291 0.60381182885224316 7.8585313489525479 11.142853536417755 230 231 228 0.70037298393727065 4 5849 2 4215 1 4459 7 5832 4 3230 3 556 2 1261 1 1824
2292 1.077721527978619 8.4283434743762413 10.93077470843286 122 122 120 0.7825246407785873 7 10605 4 10416 3 8612 1 8728
2293 -7.5727841333878176 -0.93043025279125802 17.807249188452364 139 146 124 1.2316352376909812 6 7105 4 7013 3 6585 2 6842 1 6929 7 7167 8 8581 5 7187
2294 -10.270851081725507 6.0457160768878673 12.322867435256578 13 20 26 2.1115568178392188 4 8888 7 6894 8 4779
2295 -10.977137542920063 6.8227778133371206 12.012956277890789 226 223 214 1.5829062758625223 4 10805 7 9535 8 10179
2296 2.1246129097646342 14.757789944219338 8.4926485204645026 0 0 0 2.9419944118482393 1 9334 2 8671
2297 -5.5733515435294763 0.78630526786249733 17.089008127515026 102 96 90 1.5781618122663676 3 7922 2 8068 1 6770 7 7321 5 8645 6 7268 4 7140 8 8711
2298 -15.414887984937396 -7.3797393405877907 16.168674383410863 11 13 5 2.5372594710612564 5 1069 8 965
2299 -15.793895291575563 1.0894756605016271 13.772531102853241 49 99 141 1.512170340870054 4 2266 7 650 8 1026
2300 -15.922206744014201 3.397593788875402 13.232816401133652 76 75 72 0.89424255737507818 4 5385 7 677 8 1054
2302 -14.999443612003651 4.6930231980588273 13.40699836056532 81 67 57 0.1815653829014395 4 2761 8 1237
2303 -14.8849793166168 4.7316935508689992 13.375553106224187 230 228 218 0.1834151878354546 4 2767 8 1251
2304 -14.583561386113761 4.7222925402022291 13.420675690469166 127 128 126 3.36661109231899 5 5798 7 929 8 1301
2305 -14.885055811382486 4.7686942987550189 14.065686434091431 222 221 215 0.9748169958381917 5 5773 8 1331
2306 -14.282779108789395 6.5117001876240375 12.69120081722091 245 245 237 0.11336247127553065 4 3051 8 1353
2307 -14.137894539392938 1.8931414555550448 15.344456591845798 175 179 164 1.5368488472579631 5 5492 7 1021 8 1397
2308 -11.420799269114008 3.3980160410408522 12.780015411040244 234 235 229 1.0313791243635666 3 5292 4 2577 8 1582
2309 -13.410075573731904 11.356994134350462 12.288125457497683 51 51 51 0.93484177413312108 3 5257 7 1313 8 1667
2310 -11.174096790686493 6.2691208761141155 12.212828724777037 217 214 205 1.686564144942686 3 5165 5 6079 8 1727
2311 -10.8509979962577 6.335596455691074 12.161384862927214 79 69 59 0.5547926139721312 4 5709 7 1342 8 1774
2312 -10.008524005969271 5.4176473066322988 12.520422821659766 251 250 246 0.44932771611630051 5 5964 7 1446 8 1904
2313 -10.634077570536583 -1.247366413121024 17.760567904068033 139 142 123 0.7716311253777256 5 2171 7 1568 8 1928
2314 -9.7711525547253046 8.0047139858449707 11.481503738866156 148 140 126 0.59615658310655195 2 3083 4 3346 8 1967
2316 -4.796726850208703 -0.079758349939434162 17.353740680038818 166 161 154 1.4560162999657986 2 2174 5 2273 8 2721
2318 -4.0945631451975864 2.3344516214998383 15.460341965349066 1 17 31 2.1924420620886393 6 2975 7 2372 8 2821
2319 -3.5624954328707599 2.4414250244701536 15.447239667599595 74 118 129 0.61739294528015209 7 2441 8 2927
2320 -3.3860467590177308 12.302043253614324 8.3004509350843776 2 8 12 1.1532845760725632 2 1900 3 1147 8 2945
2321 -3.2186943660664675 8.3045814796114765 12.107989400488838 224 220 209 2.2171849239439836 4 3320 7 2511 8 3044
2322 -2.6459483439087381 6.6097043145284973 12.206348924203459 13 12 8 1.795416450566272 4 3030 7 2547 8 3115
2323 -2.4320969010435536 7.7875923235134845 12.330625962861101 194 192 188 0.11228391563648811 4 3214 7 2619 8 3177
2325 -2.3532686266389051 10.63251413519882 11.964854796317542 84 98 114 0.38310514114062055 8 3213 10 6712
2326 -15.745308859824682 0.90086468267628517 13.30441884536909 223 226 225 1.5882482863787313 4 5133 7 3979 8 4100
2327 -15.877745220175743 2.5853526247277148 13.580160296584628 215 218 215 2.2825865430731187 4 7305 7 4037 8 4168
2328 -15.915674293257654 2.9716827596444704 13.68527060368416 231 235 234 0.89230525733317878 4 7335 7 6526 8 4179
2329 -17.135845521254709 -1.0423966522373598 17.210899462037197 0 0 0 1.8421586305978479 5 5152 7 4103
2330 -16.578206587593463 -1.0124331652813467 17.311577360932819 0 0 0 1.4862026067132956 5 5153 7 4151
2332 -15.030435605661046 5.7946306841581192 12.945264701456079 231 228 219 0.074616191544919955 7 876 8 4306
2333 -14.762585830497201 5.3724885484954932 13.155899107131312 244 239 233 0.26089374257433112 7 909 8 4326
2334 -14.344889120126876 5.9520857529979905 12.785999085814717 229 226 217 0.130261113146487 3 7216 8 4362
2335 -14.547785231462345 8.6214493282693994 11.703445476323044 122 114 101 1.2493141793280351 3 7202 7 964 8 4371
2336 -13.961915929730047 8.2693927599085466 11.874773986319019 226 224 212 1.0850460157877422 3 7153 7 1015 8 4422
2337 -13.377931005495169 3.0357929164945956 14.070727909592096 242 240 233 0.65701254921491081 5 5627 7 4304 8 4437
2338 -13.725023864167328 8.994858587883984 11.568487960610852 234 227 219 1.3501747322002171 3 5415 7 1050 8 4455
2339 -11.56999362661867 1.4974870772818827 14.01203939883713 253 253 251 0.6839461331617892 3 5296 7 4409 8 4590
2340 -13.542571577416039 11.418247376973051 12.270063855300579 19 18 19 1.789198000860253 3 7017 7 1300 8 4612
2341 -10.772578112408659 4.84413040114043 12.752045297079295 207 204 187 0.53489358464638592 4 7467 7 1325 8 4698
2342 -10.43176779284221 5.3319488345189425 12.53507680315505 227 224 215 0.86542970058422819 5 5945 7 1386 8 4744
2343 -8.4020543430230337 1.3060596003213274 14.415784518258091 9 51 44 1.5275514108544197 2 5333 3 2212 8 4944
2344 -8.4709389911511916 -0.30231113663783471 17.491632037776874 194 190 181 0.76962470729243915 6 5286 7 4893 8 5013
2345 -4.4928445037423259 1.8728388672470013 15.091641217417571 46 36 34 2.0079397362011631 2 4837 5 5451 8 5420
2346 -3.9830196888954275 10.178491620141347 11.850744320744996 26 30 31 0.43724769401469471 1 2437 8 5549
2347 -3.2739104343529202 13.395705091780908 7.7220719115847194 230 228 229 1.144329551645642 2 4627 3 4042 8 5566
2348 -2.7551236731573803 1.7067838278963283 16.830814292149924 151 139 125 1.1207666078950111 5 2546 7 2568 8 5631
2350 -2.6130183156999229 4.6320777153512553 13.537569077191579 23 26 26 1.4668230875145964 3 1138 5 5781 8 5676
2351 -2.4769412435502489 8.3648641003029329 12.133533161041747 177 169 162 1.120741832390719 4 3317 7 5469 8 5715
2352 -15.927298952062905 -7.6305236934225542 15.696829614124347 11 12 8 2.3554724571043488 5 6551 8 6299
2353 -15.927298952062905 -7.6305236934225542 15.696829614124347 11 12 8 2.3554724571043488 5 6552 8 6300
2354 -15.520239833929024 -7.050494779294338 16.366295367114354 3 5 0 2.3868626027096909 5 6621 8 6359
2355 -15.358044817514369 -0.46454660086088884 14.423643564071609 139 135 128 1.2005578432480295 7 4026 8 6416
